ply
format ascii 1.0
element vertex 1115
property float x
property float y
property float z
property float nx
property float ny
property float nz
end_header
0.20975318 0.073527958 -0.36602396 0 0 0 
0.099153178 -0.15937204 -0.35972396 0 0 0 
-0.10498016 0.16006129 -0.22079063 0 0 0 
0.0056531779 0.14559462 -0.03292396 0 0 0 
0.018819845 0.19779462 -0.30762396 0 0 0 
0.14635318 0.20969462 -0.39599063 0 0 0 
0.068919845 -0.020805375 0.03887604 0 0 0 
0.10775318 0.068694625 -0.23525729 0 0 0 
-0.050080155 -0.036772042 0.39010937 0 0 0 
-0.15561349 0.091594625 -0.096857293 0 0 0 
0.12285318 -0.026605375 -0.29182396 0 0 0 
-0.13951349 -0.023172042 -0.083490626 0 0 0 
0.18935318 -0.087138709 -0.31052396 0 0 0 
0.089753178 -0.086805375 -0.24289063 0 0 0 
-0.00084682212 0.18196129 0.17120937 0 0 0 
0.10918651 0.086394625 -0.25702396 0 0 0 
0.20658651 0.024027958 -0.33225729 0 0 0 
-0.063946822 -0.053138709 0.098309374 0 0 0 
0.054586511 0.048127958 0.09967604 0 0 0 
-0.14131349 0.13932796 -0.11382396 0 0 0 
-0.10591349 0.12349462 0.15277604 0 0 0 
-0.17264682 0.033661291 -0.14975729 0 0 0 
-0.14994682 0.047127958 0.16894271 0 0 0 
-0.055780155 0.16029462 -0.26909063 0 0 0 
-0.12498016 -0.11013871 0.0028760403 0 0 0 
0.093053178 -0.13260538 -0.28802396 0 0 0 
0.0090865112 0.13579462 -0.15529063 0 0 0 
-0.14324682 0.19542796 -0.31172396 0 0 0 
-0.098446822 0.026627958 0.40910937 0 0 0 
-0.20528016 0.22546129 -0.39515729 0 0 0 
0.042019845 0.027494625 -0.19962396 0 0 0 
0.0065198445 0.048727958 -0.15282396 0 0 0 
-0.17244682 0.21209462 -0.36112396 0 0 0 
-0.12318016 0.10612796 0.064742707 0 0 0 
0.0010531779 -0.16040538 -0.23775729 0 0 0 
-0.014013489 0.28169462 -0.39539063 0 0 0 
-0.24401349 0.15809462 -0.39565729 0 0 0 
-0.11998016 0.11592796 0.11754271 0 0 0 
-0.085113489 -0.090705375 -0.15802396 0 0 0 
0.20708651 0.12829462 -0.39572396 0 0 0 
-0.037846822 0.14032796 0.14430937 0 0 0 
0.21098651 -0.047472042 -0.31045729 0 0 0 
0.23601984 -0.070772042 -0.38782396 0 0 0 
-0.15431349 0.10032796 0.02987604 0 0 0 
-0.15748016 0.094361291 0.04277604 0 0 0 
-0.25338016 0.12222796 -0.39742396 0 0 0 
-0.13541349 -0.030072042 0.29434271 0 0 0 
-0.0091801555 0.15056129 -0.035257293 0 0 0 
-0.0030801555 0.11532796 0.017142707 0 0 0 
-0.10884682 -0.070538709 -0.28959063 0 0 0 
-0.13001349 -0.0010387088 -0.037157293 0 0 0 
0.11211984 0.057994625 -0.24165729 0 0 0 
-0.16921349 -0.029338709 -0.15452396 0 0 0 
-0.14431349 0.25136129 -0.39465729 0 0 0 
-0.11661349 0.093161291 0.30614271 0 0 0 
-0.19561349 -0.072138709 -0.34522396 0 0 0 
0.22768651 0.11572796 -0.39579063 0 0 0 
0.070086511 0.094227958 0.12200937 0 0 0 
-0.19298016 -0.055138709 -0.32799063 0 0 0 
-0.14974682 0.11169462 -0.11235729 0 0 0 
0.075719845 0.093194625 0.13307604 0 0 0 
-0.15764682 0.23319462 -0.38955729 0 0 0 
0.20625318 0.056394625 -0.36195729 0 0 0 
0.0058865112 0.24046129 -0.31062396 0 0 0 
0.020819845 0.27122796 -0.38449063 0 0 0 
0.11238651 -0.085338709 -0.29565729 0 0 0 
-0.17158016 0.078927958 -0.30319063 0 0 0 
0.24168651 -0.012972042 -0.34952396 0 0 0 
0.075353178 -0.012872042 -0.0013239597 0 0 0 
-0.10298016 0.24062796 -0.34709063 0 0 0 
-0.21261349 0.049127958 -0.30902396 0 0 0 
-0.016413489 0.00029462455 -0.13182396 0 0 0 
-0.14818016 0.075227958 0.14490937 0 0 0 
-0.096613489 -0.095005375 -0.08882396 0 0 0 
-0.18001349 0.059961291 0.19964271 0 0 0 
0.0074531779 0.15046129 0.26300937 0 0 0 
0.062119845 0.21642796 -0.31489063 0 0 0 
-0.12694682 -0.16827204 -0.31049063 0 0 0 
0.13605318 0.19709462 -0.37659063 0 0 0 
0.010253178 0.14789462 -0.040490626 0 0 0 
-0.0070801555 0.11812796 0.013042707 0 0 0 
-0.033613489 0.18462796 -0.20825729 0 0 0 
0.033686511 0.15056129 0.10470937 0 0 0 
-0.25871349 0.10929462 -0.33999063 0 0 0 
-0.10144682 0.27436129 -0.39482396 0 0 0 
-0.072380155 0.14242796 0.17167604 0 0 0 
0.067853178 0.0026279579 0.0092093736 0 0 0 
0.045053178 0.14222796 0.11350937 0 0 0 
0.057353178 0.22036129 -0.31269063 0 0 0 
0.00098651121 0.10236129 0.066209374 0 0 0 
0.24858651 0.0069279579 -0.36022396 0 0 0 
-0.0068468221 0.10569462 -0.073157293 0 0 0 
0.12485318 0.062327958 0.14020937 0 0 0 
0.18978651 0.095394625 -0.36862396 0 0 0 
0.0086531779 0.075627958 0.18230937 0 0 0 
-0.12141349 0.13609462 -0.056457293 0 0 0 
-0.21691349 -0.050638709 -0.35249063 0 0 0 
-0.021213489 -0.21917204 -0.24945729 0 0 0 
-0.14384682 0.12029462 0.08317604 0 0 0 
-0.016080155 0.096194625 -0.10179063 0 0 0 
0.025153178 -0.20183871 -0.37282396 0 0 0 
0.24511984 -0.047338709 -0.31542396 0 0 0 
0.096453178 0.16732796 -0.31019063 0 0 0 
-0.15388016 0.0016279579 0.074709374 0 0 0 
-0.10768016 -0.091138709 -0.07382396 0 0 0 
0.088453178 0.12822796 -0.30972396 0 0 0 
-0.15978016 -0.010705375 -0.25982396 0 0 0 
-0.23721349 0.16026129 -0.34722396 0 0 0 
0.20645318 -0.086138709 -0.35389063 0 0 0 
-0.046080155 -0.12677204 -0.20219063 0 0 0 
-0.14944682 0.015361291 0.052209374 0 0 0 
0.035886511 -0.23553871 -0.29199063 0 0 0 
0.071253178 0.050927958 -0.19472396 0 0 0 
-0.082613489 0.018161291 0.32727604 0 0 0 
-0.14368016 0.095161291 0.19814271 0 0 0 
-0.048113489 -0.089105375 0.059309374 0 0 0 
0.050119845 -0.070238709 -0.22389063 0 0 0 
-0.13861349 -0.041505375 0.06147604 0 0 0 
-0.14374682 -0.073305375 -0.30855729 0 0 0 
-0.055680155 0.014194625 0.24347604 0 0 0 
0.26628651 -0.0011720421 -0.39469063 0 0 0 
0.021019845 0.17229462 0.15774271 0 0 0 
-0.073713489 -0.081605375 0.10114271 0 0 0 
-0.089080155 -0.074138709 0.21427604 0 0 0 
-0.055746822 -0.036272042 0.37084271 0 0 0 
0.16068651 0.092427958 -0.31392396 0 0 0 
0.041086511 -0.20777204 -0.29309063 0 0 0 
-0.053813489 0.15336129 -0.095990626 0 0 0 
0.00081984454 0.099861291 0.06177604 0 0 0 
-0.14128016 0.10859462 0.10310937 0 0 0 
0.11085318 0.047761291 -0.30409063 0 0 0 
0.085086511 0.093461291 0.14864271 0 0 0 
-0.087613489 0.14989462 0.24960937 0 0 0 
-0.028980155 -0.21200538 -0.32275729 0 0 0 
-0.093980155 -0.10380538 -0.096957293 0 0 0 
-0.16721349 0.20379462 -0.34815729 0 0 0 
-0.12658016 0.10706129 -0.030157293 0 0 0 
-0.0083468221 0.16092796 -0.13872396 0 0 0 
-0.25394682 0.084394625 -0.34505729 0 0 0 
-0.13721349 0.012561291 0.12577604 0 0 0 
-0.051513489 -0.064138709 0.053842707 0 0 0 
-0.16984682 0.029094625 -0.18249063 0 0 0 
-0.020380155 0.027727958 -0.12332396 0 0 0 
0.0082865112 0.16916129 0.13497604 0 0 0 
-0.015746822 0.31866129 -0.39549063 0 0 0 
-0.21528016 0.056327958 -0.30899063 0 0 0 
-0.19524682 0.047194625 0.21534271 0 0 0 
-0.15618016 0.12069462 -0.29465729 0 0 0 
0.043019845 0.056094625 -0.064957293 0 0 0 
0.035053178 0.058861291 -0.04922396 0 0 0 
-0.068380155 -0.023172042 0.35697604 0 0 0 
-0.062246822 0.14899462 0.063442707 0 0 0 
-0.14061349 -0.057605375 -0.070490626 0 0 0 
-0.068946822 -0.14557204 0.035109374 0 0 0 
0.011119845 -0.070838709 -0.17759063 0 0 0 
-0.15428016 0.10329462 0.08407604 0 0 0 
-0.20884682 0.24659462 -0.39699063 0 0 0 
-0.045313489 -0.058305375 -0.067790626 0 0 0 
-0.0017134888 -0.028872042 -0.16182396 0 0 0 
-0.15591349 -0.045105375 -0.27485729 0 0 0 
-0.096446822 -0.067238709 0.22154271 0 0 0 
-0.21398016 0.14666129 -0.32352396 0 0 0 
0.25908651 0.049794625 -0.39539063 0 0 0 
-0.047880155 0.16776129 0.24810937 0 0 0 
-0.15641349 0.11412796 -0.14152396 0 0 0 
0.020553178 0.13219462 -0.021390626 0 0 0 
0.0085198445 0.20432796 -0.30695729 0 0 0 
-0.093713489 -0.21697204 -0.32452396 0 0 0 
0.19358651 0.055961291 -0.34795729 0 0 0 
-0.059080155 -0.071172042 0.23464271 0 0 0 
0.056753178 0.22406129 -0.31622396 0 0 0 
-0.058346822 0.15666129 -0.097257293 0 0 0 
0.017086511 0.13232796 -0.16395729 0 0 0 
0.044753178 0.043061291 -0.0090906264 0 0 0 
-0.21711349 0.0019612912 -0.31942396 0 0 0 
-0.16664682 0.17042796 -0.30952396 0 0 0 
-0.029880155 0.083227958 0.32827604 0 0 0 
-0.15981349 -0.0030053755 -0.13759063 0 0 0 
0.0043865112 0.11906129 0.0097093736 0 0 0 
-0.075813489 0.0095279579 0.14154271 0 0 0 
0.11568651 0.12612796 -0.30995729 0 0 0 
-0.16851349 0.021661291 -0.21962396 0 0 0 
0.0090198445 0.16716129 0.13297604 0 0 0 
-0.15431349 -0.18653871 -0.35702396 0 0 0 
-0.019080155 0.17856129 0.15737604 0 0 0 
0.048119845 0.090327958 0.18927604 0 0 0 
0.11041984 -0.12803871 -0.31015729 0 0 0 
0.075019845 0.064161291 -0.19982396 0 0 0 
-0.066013489 0.026761291 0.28334271 0 0 0 
-0.093746822 0.0060279579 0.14520937 0 0 0 
-0.25114682 0.0080279579 -0.37982396 0 0 0 
-0.13974682 0.16019462 -0.30945729 0 0 0 
0.033453178 0.15846129 -0.19725729 0 0 0 
0.11535318 0.043461291 -0.31019063 0 0 0 
-0.050313489 0.24656129 -0.33805729 0 0 0 
-0.091713489 -0.22230538 -0.32492396 0 0 0 
-0.22388016 0.11236129 -0.30929063 0 0 0 
-0.044346822 0.16712796 -0.26212396 0 0 0 
-0.19478016 -0.093472042 -0.38342396 0 0 0 
-0.16171349 -0.067605375 -0.18779063 0 0 0 
0.053919845 -0.065238709 -0.22292396 0 0 0 
-0.14524682 0.11616129 -0.046190626 0 0 0 
-0.080413489 0.13912796 0.081809374 0 0 0 
0.0015865112 -0.030005375 0.20467604 0 0 0 
0.22565318 -0.057872042 -0.31045729 0 0 0 
-0.011846822 0.0098279579 0.10574271 0 0 0 
0.21945318 0.075727958 -0.37745729 0 0 0 
0.096919845 0.054894625 0.11320937 0 0 0 
-0.15401349 0.050227958 0.12107604 0 0 0 
-0.016046822 -0.0072053755 -0.12215729 0 0 0 
-0.12448016 0.11589462 0.0027760403 0 0 0 
-0.15224682 -0.048938709 -0.30812396 0 0 0 
-0.14674682 -0.036838709 -0.064457293 0 0 0 
-0.024513489 -0.21543871 -0.26672396 0 0 0 
0.16748651 -0.10587204 -0.32712396 0 0 0 
-0.14624682 -0.032638709 0.26920937 0 0 0 
0.024853178 0.077961291 -0.12549063 0 0 0 
-0.048446822 -0.10130538 -0.10385729 0 0 0 
-0.17371349 0.10826129 0.097442707 0 0 0 
0.012553178 -0.19127204 -0.27259063 0 0 0 
0.14908651 -0.10257204 -0.31042396 0 0 0 
-0.19758016 0.14366129 -0.30922396 0 0 0 
0.048453178 0.064761291 -0.0065906264 0 0 0 
0.058886511 -0.18553871 -0.37489063 0 0 0 
-0.080846822 0.13219462 -0.0086906264 0 0 0 
0.0073198445 0.12319462 0.0010093736 0 0 0 
-0.13991349 -0.12630538 -0.30935729 0 0 0 
0.045419845 0.093594625 0.0053760403 0 0 0 
0.065586511 0.011627958 0.023009374 0 0 0 
-0.095580155 -0.24850538 -0.36335729 0 0 0 
0.054786511 0.019327958 -0.21065729 0 0 0 
-0.24151349 0.018961291 -0.33152396 0 0 0 
0.10811984 0.093161291 0.17064271 0 0 0 
0.0054865112 0.16546129 -0.08592396 0 0 0 
-0.0065134888 0.029127958 -0.15169063 0 0 0 
-0.10131349 0.14086129 0.25387604 0 0 0 
-0.010780155 0.23432796 -0.31065729 0 0 0 
-0.0076134888 -0.18853871 -0.25045729 0 0 0 
-0.14558016 -0.019772042 -0.12462396 0 0 0 
0.028186511 0.093994625 0.08087604 0 0 0 
-0.088146822 -0.12873871 -0.00089062635 0 0 0 
-0.17421349 0.14846129 -0.30965729 0 0 0 
-0.20924682 0.17979462 -0.34265729 0 0 0 
0.11561984 0.013327958 -0.30809063 0 0 0 
-0.094080155 0.13116129 0.14490937 0 0 0 
-0.14028016 -0.082072042 0.0036760403 0 0 0 
-0.14318016 -0.028405375 0.059509374 0 0 0 
-0.084780155 0.23876129 -0.33512396 0 0 0 
-0.13541349 0.14899462 -0.30895729 0 0 0 
-0.14874682 0.026827958 0.12690937 0 0 0 
0.059786511 -0.0075720421 0.067009374 0 0 0 
-0.13418016 0.10059462 0.16547604 0 0 0 
0.12331984 0.0090279579 -0.27162396 0 0 0 
-0.0041134888 0.078261291 -0.069057293 0 0 0 
0.18208651 0.0011612912 -0.31019063 0 0 0 
-0.052113489 -0.069805375 -0.084090626 0 0 0 
0.11038651 -0.15843871 -0.39079063 0 0 0 
-0.17044682 -0.14580538 -0.35282396 0 0 0 
-0.093213489 0.18922796 -0.31005729 0 0 0 
0.047486511 0.14772796 -0.20032396 0 0 0 
-0.23024682 -0.039738709 -0.37712396 0 0 0 
-0.15578016 -0.11197204 -0.32605729 0 0 0 
-0.11594682 0.12439462 0.22767604 0 0 0 
0.11805318 0.17826129 -0.32005729 0 0 0 
0.23471984 -0.071138709 -0.33595729 0 0 0 
-0.15028016 0.061727958 0.13180937 0 0 0 
-0.099780155 -0.11813871 0.079809374 0 0 0 
-0.097246822 0.0042612912 0.37740937 0 0 0 
0.042986511 0.053227958 0.19884271 0 0 0 
-0.15578016 0.085161291 0.17754271 0 0 0 
-0.11954682 -0.085838709 0.081542707 0 0 0 
-0.11398016 0.12616129 -0.04792396 0 0 0 
-0.099546822 -0.24273871 -0.35262396 0 0 0 
0.052753178 0.062161291 0.21970937 0 0 0 
0.026319845 -0.19650538 -0.36999063 0 0 0 
0.036053178 -0.057272042 -0.22329063 0 0 0 
-0.092380155 -0.069538709 0.19644271 0 0 0 
-0.25268016 0.13492796 -0.37619063 0 0 0 
-0.020080155 0.033361291 -0.094090626 0 0 0 
-0.11311349 0.11409462 0.28117604 0 0 0 
-0.14238016 0.12472796 -0.23535729 0 0 0 
-0.16161349 0.074161291 -0.079390626 0 0 0 
0.25378651 0.037327958 -0.39619063 0 0 0 
0.079553178 0.12259462 0.18214271 0 0 0 
-0.027146822 -0.11893871 -0.22085729 0 0 0 
-0.0060468221 0.086761291 -0.065090626 0 0 0 
-0.15141349 -0.19790538 -0.40125729 0 0 0 
-0.15108016 0.057894625 0.060142707 0 0 0 
-0.069613489 0.13719462 0.0038093736 0 0 0 
-0.015113489 0.16402796 -0.13719063 0 0 0 
-0.028080155 0.17659462 -0.15269063 0 0 0 
-0.035246822 0.12992796 0.014842707 0 0 0 
0.070519845 0.27279462 -0.37945729 0 0 0 
-0.066813489 0.17516129 -0.22205729 0 0 0 
-0.13034682 0.089861291 0.29450937 0 0 0 
0.0090531779 0.12882796 0.26587604 0 0 0 
0.077186511 0.25839462 -0.35512396 0 0 0 
-0.19934682 -0.035138709 -0.32542396 0 0 0 
0.13535318 0.23059462 -0.39619063 0 0 0 
-0.11764682 0.11496129 0.16460937 0 0 0 
0.16411984 0.15266129 -0.37395729 0 0 0 
-0.084646822 0.0087279579 0.16030937 0 0 0 
-0.11491349 -0.039105375 0.29130937 0 0 0 
-0.052213489 -0.036072042 0.37080937 0 0 0 
0.014486511 0.16702796 -0.18402396 0 0 0 
-0.053080155 -0.049138709 0.073842707 0 0 0 
-0.11621349 0.12849462 0.03157604 0 0 0 
0.16651984 0.18622796 -0.39572396 0 0 0 
0.081053178 0.20972796 -0.31585729 0 0 0 
0.11925318 0.019427958 -0.31039063 0 0 0 
-0.011413489 0.085461291 -0.092957293 0 0 0 
-0.11508016 0.25806129 -0.39455729 0 0 0 
0.071219845 0.015827958 -0.01902396 0 0 0 
0.26091984 -0.014572042 -0.39542396 0 0 0 
-0.16514682 -0.012338709 -0.18902396 0 0 0 
0.18865318 0.056127958 -0.32715729 0 0 0 
-0.20924682 0.22282796 -0.39479063 0 0 0 
-0.090780155 0.13622796 0.16480937 0 0 0 
0.21538651 0.10442796 -0.39559063 0 0 0 
-0.074946822 0.15806129 0.04557604 0 0 0 
0.086553178 0.057161291 -0.20699063 0 0 0 
-0.15028016 0.037027958 0.13467604 0 0 0 
-0.10978016 0.14879462 -0.069290626 0 0 0 
0.060786511 -0.066138709 -0.22532396 0 0 0 
0.15598651 0.15922796 -0.36895729 0 0 0 
-0.059546822 0.18346129 -0.17295729 0 0 0 
-0.12281349 -0.076072042 0.043009374 0 0 0 
0.20985318 0.039827958 -0.34539063 0 0 0 
0.081153178 0.080661291 0.099242707 0 0 0 
0.073053178 -0.065238709 0.0096760403 0 0 0 
0.028553178 0.11902796 -0.0094906264 0 0 0 
-0.066913489 -0.12587204 0.080509374 0 0 0 
-0.20204682 0.16849462 -0.32745729 0 0 0 
-0.13521349 -0.011205375 -0.09862396 0 0 0 
-0.050580155 -0.038305375 0.037442707 0 0 0 
0.060519845 -0.21193871 -0.30255729 0 0 0 
0.028219845 0.093661291 -0.18059063 0 0 0 
-0.071380155 0.15836129 0.24967604 0 0 0 
-0.083313489 0.13769462 0.13307604 0 0 0 
-0.15578016 0.034427958 0.10794271 0 0 0 
-0.14511349 0.18566129 -0.30979063 0 0 0 
0.068753178 0.069127958 -0.18509063 0 0 0 
0.079886511 -0.14123871 -0.27499063 0 0 0 
0.035919845 0.037761291 -0.18262396 0 0 0 
0.022653178 -0.081472042 -0.22899063 0 0 0 
0.073953178 0.048161291 -0.19715729 0 0 0 
-0.22504682 0.18862796 -0.37005729 0 0 0 
-0.11828016 0.14536129 -0.18492396 0 0 0 
-0.11414682 0.15496129 -0.21542396 0 0 0 
0.23375318 -0.039272042 -0.31092396 0 0 0 
0.040519845 0.047327958 0.11054271 0 0 0 
-0.19774682 -0.073172042 -0.35065729 0 0 0 
-0.072813489 -0.14270538 0.018242707 0 0 0 
-0.0098134888 0.0078279579 -0.14102396 0 0 0 
-0.0014468221 -0.083405375 -0.17755729 0 0 0 
-0.21288016 0.056294625 -0.30879063 0 0 0 
-0.24391349 0.060227958 -0.32252396 0 0 0 
-0.0047468221 -0.050038709 -0.084757293 0 0 0 
-0.20284682 -0.030038709 -0.32519063 0 0 0 
-0.041813489 -0.090572042 -0.16589063 0 0 0 
0.093819845 -0.055372042 -0.23319063 0 0 0 
-0.092013489 -0.26137204 -0.39089063 0 0 0 
-0.16584682 0.056594625 -0.05502396 0 0 0 
0.042219845 0.0092612912 -0.067557293 0 0 0 
0.041119845 -0.071038709 0.04997604 0 0 0 
-0.076080155 -0.10023871 -0.14379063 0 0 0 
-0.045580155 0.16732796 0.26324271 0 0 0 
-0.17064682 -0.030072042 -0.16715729 0 0 0 
-0.041946822 -0.027838709 0.35447604 0 0 0 
0.17201984 0.10992796 -0.34325729 0 0 0 
0.020886511 0.10646129 0.0046760403 0 0 0 
0.099919845 -0.088938709 -0.25445729 0 0 0 
-0.074746822 -0.044705375 0.17437604 0 0 0 
0.074253178 0.0020612912 -0.012790626 0 0 0 
0.019919845 0.16396129 -0.10889063 0 0 0 
-0.16334682 -0.0018387088 -0.20082396 0 0 0 
0.0045198445 0.13536129 0.28910937 0 0 0 
0.079986511 -0.062205375 0.02167604 0 0 0 
-0.13244682 0.012594625 -0.095657293 0 0 0 
-0.15294682 0.084194625 -0.028257293 0 0 0 
-0.12214682 0.14696129 -0.23072396 0 0 0 
-0.14798016 0.062394625 -0.11179063 0 0 0 
-0.018213489 -0.054738709 -0.020657293 0 0 0 
-0.023280155 -0.083205375 -0.16942396 0 0 0 
0.033053178 -0.21547204 -0.28982396 0 0 0 
0.064553178 -0.061838709 0.051142707 0 0 0 
0.050119845 0.15749462 -0.23515729 0 0 0 
0.077253178 0.11862796 -0.21069063 0 0 0 
-0.12091349 -0.065338709 -0.26199063 0 0 0 
-0.039013489 -0.050905375 -0.07942396 0 0 0 
0.083653178 -0.097405375 -0.24265729 0 0 0 
-0.064646822 -0.16543871 -0.17659063 0 0 0 
-0.12614682 0.15609462 -0.09732396 0 0 0 
0.17691984 0.018894625 -0.31019063 0 0 0 
0.050053178 0.064727958 0.12890937 0 0 0 
-0.26314682 0.027427958 -0.37009063 0 0 0 
-0.25434682 0.099261291 -0.33325729 0 0 0 
-0.26681349 0.050161291 -0.39532396 0 0 0 
0.12891984 -0.076772042 -0.31059063 0 0 0 
-0.15418016 0.19912796 -0.32209063 0 0 0 
0.21151984 -0.047938709 -0.31062396 0 0 0 
0.082653178 0.049727958 0.11837604 0 0 0 
0.11995318 0.10899462 -0.31002396 0 0 0 
0.11801984 0.012361291 -0.29925729 0 0 0 
-0.049313489 0.13089462 -0.0053906264 0 0 0 
-0.19688016 0.10566129 -0.30925729 0 0 0 
-0.25424682 0.11389462 -0.33892396 0 0 0 
0.12421984 0.060494625 -0.31012396 0 0 0 
-0.023680155 0.17509462 0.15834271 0 0 0 
0.0043531779 0.16222796 0.23647604 0 0 0 
-0.023380155 0.15112796 0.061442707 0 0 0 
0.039186511 -0.020972042 -0.19419063 0 0 0 
-0.10108016 0.13279462 0.28197604 0 0 0 
-0.0025468221 0.13532796 -0.0075239597 0 0 0 
-0.13444682 0.032961291 -0.10055729 0 0 0 
0.17811984 0.089627958 -0.33739063 0 0 0 
-0.11494682 -0.047005375 0.24530937 0 0 0 
-0.075980155 0.12289462 0.31640937 0 0 0 
-0.049680155 -0.046438709 0.02147604 0 0 0 
0.19985318 0.15119462 -0.39599063 0 0 0 
-0.23518016 0.13936129 -0.34005729 0 0 0 
-0.11348016 0.13219462 0.07377604 0 0 0 
-0.12088016 -0.10917204 0.032909374 0 0 0 
-0.010946822 -0.20473871 -0.32155729 0 0 0 
-0.0079134888 0.30202796 -0.39589063 0 0 0 
0.044186511 0.12652796 -0.01282396 0 0 0 
-0.15414682 -0.044738709 -0.20282396 0 0 0 
0.044619845 0.13582796 0.15417604 0 0 0 
0.039753178 0.12116129 -0.17805729 0 0 0 
-0.040613489 0.13006129 0.002642707 0 0 0 
0.11395318 0.036261291 -0.30362396 0 0 0 
-0.086480155 -0.0046720421 0.35687604 0 0 0 
-0.082613489 -0.17237204 -0.18685729 0 0 0 
0.019086511 -0.064738709 0.023409374 0 0 0 
-0.047713489 0.14736129 -0.07472396 0 0 0 
-0.13318016 0.13286129 -0.14295729 0 0 0 
-0.13478016 0.13149462 -0.055057293 0 0 0 
0.10465318 -0.051005375 -0.24165729 0 0 0 
0.043753178 -0.0044053755 -0.20269063 0 0 0 
-0.17228016 -0.075472042 -0.31915729 0 0 0 
-0.25241349 0.010594625 -0.38645729 0 0 0 
-0.029013489 0.15042796 -0.045657293 0 0 0 
-0.020046822 -0.055405375 -0.027757293 0 0 0 
-0.027480155 0.17846129 0.19354271 0 0 0 
0.11551984 -0.069505375 -0.29949063 0 0 0 
0.065186511 0.14636129 -0.23222396 0 0 0 
-0.10811349 -0.078738709 -0.28195729 0 0 0 
0.012386511 0.14469462 -0.15725729 0 0 0 
0.053653178 -0.11317204 -0.23662396 0 0 0 
-0.049013489 -0.096738709 0.0077093736 0 0 0 
-0.23201349 -0.016238709 -0.34959063 0 0 0 
0.0084198445 0.011261291 -0.16502396 0 0 0 
0.26565318 0.026327958 -0.39572396 0 0 0 
-0.14668016 0.21112796 -0.32715729 0 0 0 
0.11855318 0.10072796 0.18414271 0 0 0 
0.12091984 -0.15287204 -0.39719063 0 0 0 
0.080553178 -0.059405375 0.019309374 0 0 0 
0.020653178 -0.065405375 0.05737604 0 0 0 
-0.19098016 0.16049462 -0.30945729 0 0 0 
-0.023146822 0.17496129 0.23297604 0 0 0 
-0.012646822 0.17586129 0.21434271 0 0 0 
-0.062346822 -0.022405375 0.34434271 0 0 0 
-0.10324682 0.15986129 -0.17365729 0 0 0 
0.11838651 0.21516129 -0.34605729 0 0 0 
0.039086511 0.15139462 0.16974271 0 0 0 
-0.16921349 -0.020738709 -0.15875729 0 0 0 
-0.15624682 0.11916129 -0.069390626 0 0 0 
-0.048346822 -0.079905375 -0.10139063 0 0 0 
0.055053178 0.032461291 0.060609374 0 0 0 
0.030886511 0.16506129 0.17640937 0 0 0 
-0.15121349 -0.020005375 0.28664271 0 0 0 
-0.0073134888 0.14706129 -0.027290626 0 0 0 
-0.12871349 -0.070038709 0.07437604 0 0 0 
-0.074613489 0.13599462 -0.058590626 0 0 0 
0.13155318 -0.018038709 -0.31012396 0 0 0 
0.16975318 0.19536129 -0.39655729 0 0 0 
0.080819845 0.054094625 0.12314271 0 0 0 
-0.0037134888 0.12706129 0.30240937 0 0 0 
0.21905318 -0.010238709 -0.31795729 0 0 0 
-0.15918016 0.040794625 0.082609374 0 0 0 
-0.13384682 -0.059005375 -0.28329063 0 0 0 
-0.14604682 0.11506129 -0.046057293 0 0 0 
0.11198651 0.22206129 -0.34232396 0 0 0 
0.16405318 0.19106129 -0.39555729 0 0 0 
0.040519845 -0.084705375 -0.22769063 0 0 0 
0.12445318 0.10606129 0.19680937 0 0 0 
-0.074346822 -0.054738709 0.18347604 0 0 0 
-0.048946822 0.16672796 -0.11409063 0 0 0 
0.16968651 0.071461291 -0.32399063 0 0 0 
0.013853178 0.17442796 -0.20585729 0 0 0 
-0.12814682 -0.070972042 -0.08502396 0 0 0 
0.25158651 -0.0062387088 -0.36205729 0 0 0 
-0.058013489 -0.10343871 -0.006757293 0 0 0 
-0.0026134888 0.029894625 -0.15642396 0 0 0 
-0.056546822 0.17609462 -0.21699063 0 0 0 
-0.18194682 0.057994625 0.18707604 0 0 0 
0.045353178 0.046794625 0.11154271 0 0 0 
-0.13728016 -0.19747204 -0.34159063 0 0 0 
-0.051280155 0.22382796 -0.31165729 0 0 0 
0.061486511 0.016394625 0.0068093736 0 0 0 
-0.14054682 -0.064972042 -0.06032396 0 0 0 
-0.10598016 0.0037946245 0.19014271 0 0 0 
-0.083946822 0.16486129 -0.20855729 0 0 0 
-0.052213489 -0.24530538 -0.39949063 0 0 0 
-0.084413489 -0.055938709 0.25747604 0 0 0 
-0.14211349 0.040894625 -0.07272396 0 0 0 
-0.013446822 0.16629462 -0.26459063 0 0 0 
0.20358651 0.10682796 -0.39562396 0 0 0 
-0.12741349 -0.20190538 -0.33172396 0 0 0 
-0.15138016 0.084694625 -0.11582396 0 0 0 
-0.023146822 -0.20627204 -0.23399063 0 0 0 
0.14291984 0.15956129 -0.33942396 0 0 0 
0.10511984 -0.098305375 -0.27045729 0 0 0 
-0.037713489 0.23249462 -0.31852396 0 0 0 
-0.22141349 0.17466129 -0.34585729 0 0 0 
-0.060946822 -0.029505375 0.36457604 0 0 0 
-0.10161349 -0.13357204 0.02197604 0 0 0 
0.17161984 0.13649462 -0.39535729 0 0 0 
-0.11674682 0.0047279579 0.12617604 0 0 0 
-0.072080155 -0.019238709 0.41177604 0 0 0 
0.021386511 0.15926129 -0.088390626 0 0 0 
-0.12404682 0.13139462 0.04877604 0 0 0 
0.026119845 0.040194625 0.12967604 0 0 0 
0.049553178 0.13959462 0.16747604 0 0 0 
0.039386511 -0.053238709 -0.22249063 0 0 0 
0.014953178 0.13686129 -0.08752396 0 0 0 
0.24871984 -0.040672042 -0.36419063 0 0 0 
-0.0035468221 -0.22147204 -0.40152396 0 0 0 
0.039519845 0.14996129 0.19427604 0 0 0 
-0.075846822 -0.11497204 -0.18045729 0 0 0 
0.11501984 0.069561291 -0.26442396 0 0 0 
-0.15318016 0.064561291 -0.087090626 0 0 0 
-0.013813489 -0.041938709 -0.05192396 0 0 0 
-0.052613489 -0.11347204 0.071609374 0 0 0 
0.018453178 0.011127958 0.21064271 0 0 0 
0.18001984 0.0027612912 -0.31019063 0 0 0 
0.088019845 0.15286129 -0.30982396 0 0 0 
0.068219845 -0.061272042 0.0026093736 0 0 0 
-0.17058016 -0.14693871 -0.35512396 0 0 0 
-0.17071349 0.040361291 -0.20729063 0 0 0 
0.070186511 0.012794625 -0.02912396 0 0 0 
0.011286511 0.16479462 -0.26975729 0 0 0 
-0.12818016 -0.069772042 -0.093490626 0 0 0 
-0.083280155 0.014927958 0.31067604 0 0 0 
0.0096865112 0.26359462 -0.34875729 0 0 0 
-0.079980155 -0.14807204 -0.32482396 0 0 0 
-0.13954682 -0.030672042 0.28740937 0 0 0 
-0.067280155 0.14589462 0.073942707 0 0 0 
-0.015680155 -0.054738709 0.22747604 0 0 0 
0.035319845 0.056461291 0.06637604 0 0 0 
0.045519845 0.045294625 0.21244271 0 0 0 
0.091486511 0.066394625 0.14520937 0 0 0 
-0.15154682 0.091061291 -0.03202396 0 0 0 
-0.13408016 0.013727958 0.31747604 0 0 0 
-0.11421349 -0.080072042 -0.09122396 0 0 0 
0.11428651 0.21452796 -0.33962396 0 0 0 
-0.12871349 0.25226129 -0.39455729 0 0 0 
-0.25351349 0.082761291 -0.34319063 0 0 0 
0.031619845 0.049261291 -0.01592396 0 0 0 
-0.073546822 0.010894625 0.17180937 0 0 0 
-0.18011349 0.072094625 0.18194271 0 0 0 
0.092653178 -0.11800538 -0.26869063 0 0 0 
0.014053178 -0.16150538 -0.24805729 0 0 0 
0.054319845 0.058994625 -0.17525729 0 0 0 
-0.13221349 0.10426129 -0.020490626 0 0 0 
-0.036113489 0.14622796 -0.04412396 0 0 0 
0.040186511 0.16306129 -0.22622396 0 0 0 
0.034053178 0.073861291 0.16050937 0 0 0 
0.049853178 0.048061291 0.11424271 0 0 0 
-0.018780155 -0.059372042 0.19884271 0 0 0 
-0.16164682 0.10286129 -0.20352396 0 0 0 
0.00018651121 0.20362796 -0.30709063 0 0 0 
-0.18951349 -0.095972042 -0.34359063 0 0 0 
-0.21498016 0.022661291 -0.30889063 0 0 0 
0.0010198445 -0.080805375 -0.22389063 0 0 0 
-0.14244682 -0.093005375 -0.19302396 0 0 0 
0.0042865112 0.15996129 -0.05722396 0 0 0 
-0.053980155 0.012261291 0.11457604 0 0 0 
-0.094880155 -0.0074720421 0.29754271 0 0 0 
0.11398651 0.044261291 0.12870937 0 0 0 
0.076986511 0.12489462 -0.21712396 0 0 0 
-0.10224682 0.12479462 -0.01622396 0 0 0 
0.020586511 0.16862796 -0.19692396 0 0 0 
-0.090980155 -0.00073870879 0.41030937 0 0 0 
-0.14938016 0.098161291 -0.03422396 0 0 0 
-0.12454682 0.22766129 -0.33852396 0 0 0 
-0.084813489 -0.16683871 -0.19229063 0 0 0 
-0.16464682 0.22109462 -0.36112396 0 0 0 
-0.11441349 -0.11330538 0.048909374 0 0 0 
-0.050146822 0.027727958 0.18377604 0 0 0 
0.10978651 0.078227958 -0.25029063 0 0 0 
-0.16848016 0.030994625 -0.25025729 0 0 0 
0.048786511 0.052461291 0.22237604 0 0 0 
0.18178651 0.10396129 -0.36399063 0 0 0 
-0.13041349 -0.067705375 -0.08522396 0 0 0 
-0.094180155 0.011527958 0.36244271 0 0 0 
-0.14498016 0.11322796 0.093042707 0 0 0 
0.019786511 -0.20643871 -0.39562396 0 0 0 
-0.17094682 0.084227958 -0.18915729 0 0 0 
-0.023246822 0.073061291 0.29614271 0 0 0 
-0.13904682 0.099194625 0.23527604 0 0 0 
-0.19628016 0.19286129 -0.35315729 0 0 0 
0.26121984 -0.045405375 -0.39592396 0 0 0 
0.22305318 -0.030738709 -0.31082396 0 0 0 
-0.067713489 -0.034172042 0.39047604 0 0 0 
-0.19451349 0.048127958 0.21397604 0 0 0 
-0.10931349 0.15649462 -0.27535729 0 0 0 
-0.057680155 0.020627958 0.15914271 0 0 0 
-0.055280155 0.14829462 0.19710937 0 0 0 
-0.15384682 0.045227958 0.004742707 0 0 0 
-0.034013489 0.098694625 0.31607604 0 0 0 
0.26495318 -0.028205375 -0.39442396 0 0 0 
-0.17068016 0.041094625 -0.18799063 0 0 0 
0.080253178 0.058594625 -0.20402396 0 0 0 
-0.15778016 0.044127958 0.21634271 0 0 0 
-0.010613489 0.16476129 -0.10035729 0 0 0 
-0.14924682 -0.00087204212 0.30054271 0 0 0 
-0.027546822 0.11962796 0.060842707 0 0 0 
-0.14711349 -0.085372042 -0.30835729 0 0 0 
0.052619845 0.072427958 -0.16865729 0 0 0 
-0.0072468221 0.0094946245 -0.14499063 0 0 0 
0.21148651 0.090761291 -0.39039063 0 0 0 
-0.13444682 0.15156129 0.05817604 0 0 0 
0.0032198445 0.095361291 -0.044090626 0 0 0 
0.11935318 0.097994625 0.18064271 0 0 0 
-0.12078016 0.16186129 -0.11309063 0 0 0 
-0.16171349 0.10512796 -0.060890626 0 0 0 
-0.052913489 0.087427958 0.35107604 0 0 0 
0.12721984 -0.13307204 -0.39115729 0 0 0 
-0.14238016 0.097327958 0.21454271 0 0 0 
0.0055865112 0.049061291 -0.14155729 0 0 0 
0.044019845 0.24719462 -0.32789063 0 0 0 
0.018219845 0.043461291 0.13894271 0 0 0 
-0.090780155 0.17106129 -0.12259063 0 0 0 
0.018186511 0.29489462 -0.39709063 0 0 0 
-0.041580155 0.087961291 0.34134271 0 0 0 
-0.14474682 0.018027958 -0.046857293 0 0 0 
0.069853178 -0.030672042 -0.21969063 0 0 0 
-0.15244682 0.029161291 0.027442707 0 0 0 
0.082453178 0.12846129 -0.23509063 0 0 0 
-0.26708016 0.033827958 -0.37935729 0 0 0 
0.19788651 0.045327958 -0.33885729 0 0 0 
0.041353178 0.054961291 -0.15235729 0 0 0 
-0.18658016 0.080927958 -0.30905729 0 0 0 
-0.17198016 0.059727958 -0.29092396 0 0 0 
-0.16901349 -0.11917204 -0.33752396 0 0 0 
-0.043480155 0.15819462 0.17710937 0 0 0 
-0.10841349 0.12042796 -0.03592396 0 0 0 
-0.13728016 0.0028612912 -0.04472396 0 0 0 
0.12358651 0.050761291 0.13887604 0 0 0 
-0.14491349 0.11296129 0.09337604 0 0 0 
-0.17188016 0.12772796 0.082109374 0 0 0 
-0.11791349 0.24459462 -0.36292396 0 0 0 
0.23225318 -0.044438709 -0.31079063 0 0 0 
0.21435318 0.11159462 -0.39542396 0 0 0 
0.010453178 0.16552796 -0.086857293 0 0 0 
-0.22748016 0.017894625 -0.32389063 0 0 0 
-0.11708016 -0.034038709 0.21050937 0 0 0 
0.15445318 0.060727958 -0.30995729 0 0 0 
0.0088865112 -0.022105375 0.22347604 0 0 0 
-0.15028016 0.12082796 -0.27282396 0 0 0 
0.14988651 0.075394625 -0.31025729 0 0 0 
-0.10531349 -0.13673871 0.033242707 0 0 0 
0.035219845 0.14086129 -0.051857293 0 0 0 
-0.036913489 0.13019462 0.015509374 0 0 0 
0.048453178 -0.072272042 0.046809374 0 0 0 
-0.038580155 -0.041438709 -0.013057293 0 0 0 
-0.072546822 0.15316129 0.21680937 0 0 0 
0.022786511 0.17266129 0.16680937 0 0 0 
-0.12251349 0.010894625 0.19244271 0 0 0 
0.18191984 0.0037279579 -0.31032396 0 0 0 
-0.17054682 0.042494625 -0.13292396 0 0 0 
0.10078651 0.10462796 0.18040937 0 0 0 
-0.15211349 -0.11657204 -0.32212396 0 0 0 
-0.049846822 -0.036505375 0.039442707 0 0 0 
-0.14754682 -0.15843871 -0.32629063 0 0 0 
-0.044180155 -0.030405375 0.035409374 0 0 0 
-0.066413489 0.16022796 0.26297604 0 0 0 
0.14868651 0.085927958 -0.30989063 0 0 0 
-0.040380155 0.088994625 0.34104271 0 0 0 
-0.015746822 0.16162796 -0.13375729 0 0 0 
0.14108651 0.017094625 -0.31049063 0 0 0 
-0.18681349 0.077927958 0.15714271 0 0 0 
-0.0093468221 0.12186129 -0.15109063 0 0 0 
-0.080913489 0.13829462 0.094142707 0 0 0 
0.042753178 0.18429462 -0.31002396 0 0 0 
-0.25008016 0.030927958 -0.34155729 0 0 0 
-0.058980155 0.13992796 -0.062157293 0 0 0 
0.048053178 0.23386129 -0.31409063 0 0 0 
0.068653178 -0.15153871 -0.27295729 0 0 0 
-0.081513489 0.15286129 0.23690937 0 0 0 
0.16025318 0.029427958 -0.31045729 0 0 0 
0.19128651 0.10569462 -0.38512396 0 0 0 
-0.15298016 0.081761291 -0.11595729 0 0 0 
-0.068613489 -0.030305375 0.40040937 0 0 0 
0.17445318 0.00096129121 -0.31002396 0 0 0 
0.10775318 0.082794625 -0.24475729 0 0 0 
0.22508651 0.10199462 -0.39542396 0 0 0 
-0.14604682 -0.049172042 -0.03682396 0 0 0 
-0.065346822 -0.12177204 -0.26972396 0 0 0 
-0.19058016 0.16919462 -0.31762396 0 0 0 
-0.14278016 -0.031305375 0.26780937 0 0 0 
0.074753178 0.10019462 0.14180937 0 0 0 
0.12241984 -0.041405375 -0.28215729 0 0 0 
0.18998651 0.12559462 -0.39549063 0 0 0 
0.015586511 0.12872796 0.22367604 0 0 0 
0.075986511 0.088661291 0.12644271 0 0 0 
-0.012080155 0.031861291 -0.14429063 0 0 0 
-0.15828016 0.026894625 0.098109374 0 0 0 
-0.089013489 -0.11033871 -0.096190626 0 0 0 
0.022953178 0.099227958 0.01077604 0 0 0 
-0.023213489 0.18929462 -0.30685729 0 0 0 
-0.11528016 0.16332796 -0.10245729 0 0 0 
-0.048913489 0.14189462 0.096209374 0 0 0 
-0.16848016 0.027294625 -0.13499063 0 0 0 
-0.21758016 -0.014472042 -0.33425729 0 0 0 
-0.027113489 0.086627958 0.31774271 0 0 0 
-0.13428016 0.24599462 -0.38392396 0 0 0 
0.0035531779 0.093761291 -0.12265729 0 0 0 
0.078653178 0.18962796 -0.31035729 0 0 0 
0.0064531779 0.12702796 -0.0049239597 0 0 0 
0.0043198445 -0.028372042 0.20907604 0 0 0 
0.013753178 0.11619462 0.00084270698 0 0 0 
0.15485318 0.12329462 -0.32682396 0 0 0 
-0.16504682 0.092894625 -0.074357293 0 0 0 
0.19435318 0.095527958 -0.37799063 0 0 0 
-0.096913489 0.13292796 0.005442707 0 0 0 
-0.010580155 0.17002796 0.25980937 0 0 0 
-0.020346822 0.11786129 0.02457604 0 0 0 
0.10431984 0.092427958 -0.30979063 0 0 0 
0.17035318 0.15109462 -0.39569063 0 0 0 
-0.17688016 0.10152796 0.10294271 0 0 0 
-0.047246822 0.058427958 0.35994271 0 0 0 
0.0059198445 0.16966129 0.21510937 0 0 0 
-0.00081348879 -0.047438709 -0.059390626 0 0 0 
-0.17238016 0.049194625 0.23220937 0 0 0 
-0.16354682 0.27752796 -0.39575729 0 0 0 
0.019819845 0.16136129 -0.083257293 0 0 0 
0.16525318 0.16609462 -0.39602396 0 0 0 
0.060753178 -0.00030537545 0.061809374 0 0 0 
-0.24724682 0.040261291 -0.32709063 0 0 0 
0.024753178 0.17166129 -0.23052396 0 0 0 
-0.047113489 -0.23787204 -0.35385729 0 0 0 
0.11501984 0.23842796 -0.38965729 0 0 0 
-0.14381349 0.092861291 0.18344271 0 0 0 
-0.16311349 0.10106129 -0.18679063 0 0 0 
-0.12504682 -0.077438709 -0.13212396 0 0 0 
-0.036946822 -0.17280538 -0.29385729 0 0 0 
0.0021531779 0.13732796 0.29387604 0 0 0 
0.10045318 -0.11920538 -0.30279063 0 0 0 
0.19591984 0.042227958 -0.33342396 0 0 0 
0.19485318 -0.077338709 -0.31069063 0 0 0 
-0.048213489 -0.033672042 0.038409374 0 0 0 
-0.18624682 0.21346129 -0.36779063 0 0 0 
0.015553178 -0.13960538 -0.23845729 0 0 0 
-0.22908016 0.12872796 -0.31635729 0 0 0 
-0.17398016 0.067594625 -0.20002396 0 0 0 
0.10088651 0.20199462 -0.32462396 0 0 0 
0.19858651 0.12296129 -0.39559063 0 0 0 
-0.076613489 -0.081372042 0.10257604 0 0 0 
-0.084646822 -0.14010538 0.07097604 0 0 0 
-0.081280155 0.17292796 -0.12505729 0 0 0 
0.15101984 0.17692796 -0.37555729 0 0 0 
0.12018651 0.014994625 -0.25085729 0 0 0 
0.25555318 0.061527958 -0.39582396 0 0 0 
-0.10474682 0.20596129 -0.31005729 0 0 0 
-0.0097468221 0.13149462 0.11114271 0 0 0 
-0.013680155 0.12349462 0.0063093736 0 0 0 
0.0074865112 0.13469462 -0.01932396 0 0 0 
-0.10998016 -0.045805375 0.27580937 0 0 0 
-0.17554682 0.24726129 -0.39572396 0 0 0 
-0.015246822 0.31862796 -0.39535729 0 0 0 
0.051319845 -0.0035387088 0.08287604 0 0 0 
-0.0052468221 0.16572796 -0.27285729 0 0 0 
-0.12561349 0.15082796 -0.07562396 0 0 0 
-0.049713489 -0.078205375 0.05697604 0 0 0 
0.043519845 0.062027958 0.074642707 0 0 0 
-0.10531349 0.15759462 -0.30642396 0 0 0 
-0.066713489 -0.18477204 -0.32409063 0 0 0 
0.042619845 0.16342796 -0.24152396 0 0 0 
-0.12548016 0.10929462 0.16457604 0 0 0 
-0.11431349 0.15636129 -0.083057293 0 0 0 
-0.15578016 0.10916129 -0.24969063 0 0 0 
0.073119845 0.12219462 0.17317604 0 0 0 
0.027653178 0.095527958 -0.15052396 0 0 0 
-0.082846822 -0.11703871 -0.05972396 0 0 0 
-0.091013489 -0.11810538 -0.23012396 0 0 0 
0.22425318 0.10436129 -0.39525729 0 0 0 
0.030319845 -0.14433871 -0.24225729 0 0 0 
0.10215318 -0.13933871 -0.31255729 0 0 0 
0.27941984 -0.015572042 -0.39492396 0 0 0 
-0.13764682 -0.15717204 -0.31285729 0 0 0 
-0.0040801555 0.030861291 0.11460937 0 0 0 
-0.13714682 -0.093205375 -0.14959063 0 0 0 
0.021186511 0.010027958 0.21380937 0 0 0 
0.29238651 -0.014672042 -0.39512396 0 0 0 
0.094719845 0.058494625 -0.21315729 0 0 0 
0.10288651 0.095261291 -0.30979063 0 0 0 
-0.083780155 -0.11097204 -0.29449063 0 0 0 
-0.14564682 0.035094625 0.15530937 0 0 0 
-0.028280155 0.16316129 -0.12509063 0 0 0 
0.19125318 0.13419462 -0.39575729 0 0 0 
0.060119845 0.11192796 0.13204271 0 0 0 
0.033653178 0.25732796 -0.34589063 0 0 0 
-0.015580155 -0.0086720421 -0.13169063 0 0 0 
0.19588651 -0.091572042 -0.38405729 0 0 0 
-0.20221349 0.18912796 -0.35449063 0 0 0 
0.090919845 0.25759462 -0.36395729 0 0 0 
-0.030413489 -0.026305375 0.38584271 0 0 0 
0.098419845 -0.075538709 -0.24622396 0 0 0 
-0.054146822 -0.095972042 -0.14895729 0 0 0 
-0.060813489 0.18132796 -0.14569063 0 0 0 
-0.18464682 0.030661291 -0.30862396 0 0 0 
0.053986511 -0.024072042 0.080342707 0 0 0 
-0.17071349 0.19072796 -0.33729063 0 0 0 
0.24875318 -0.035072042 -0.36335729 0 0 0 
-0.091780155 -0.00053870879 0.37367604 0 0 0 
0.22001984 -0.079172042 -0.32679063 0 0 0 
-0.046313489 0.027861291 0.15220937 0 0 0 
-0.11728016 0.23699462 -0.35175729 0 0 0 
0.045986511 -0.0057720421 0.088042707 0 0 0 
-0.050413489 0.15066129 0.060709374 0 0 0 
0.10151984 0.094394625 0.18620937 0 0 0 
-0.10798016 0.15152796 -0.19725729 0 0 0 
-0.041313489 0.044827958 0.41697604 0 0 0 
0.079953178 -0.15357204 -0.29549063 0 0 0 
-0.045780155 0.26529462 -0.36432396 0 0 0 
-0.16548016 0.081294625 -0.033490626 0 0 0 
-0.19068016 0.24636129 -0.39619063 0 0 0 
-0.14041349 -0.081938709 -0.033457293 0 0 0 
-0.19191349 -0.057772042 -0.32749063 0 0 0 
0.10721984 0.079261291 -0.28955729 0 0 0 
-0.042746822 0.13749462 0.10897604 0 0 0 
0.084453178 0.051261291 0.09207604 0 0 0 
-0.16301349 -0.0038053755 -0.30665729 0 0 0 
0.12138651 -0.044305375 -0.27315729 0 0 0 
-0.028380155 0.14842796 -0.038557293 0 0 0 
-0.14401349 0.010794625 0.0023093736 0 0 0 
0.086586511 0.085527958 0.16617604 0 0 0 
-0.0076801555 0.12679462 0.10424271 0 0 0 
0.10795318 0.19582796 -0.32225729 0 0 0 
-0.096046822 0.14322796 0.26437604 0 0 0 
-0.037080155 -0.17470538 -0.30172396 0 0 0 
0.017319845 0.13266129 0.22370937 0 0 0 
-0.24054682 0.10036129 -0.31069063 0 0 0 
0.0042198445 0.12259462 0.28340937 0 0 0 
-0.14641349 0.038127958 0.14654271 0 0 0 
-0.13888016 0.099361291 0.14627604 0 0 0 
0.22698651 0.055827958 -0.36765729 0 0 0 
0.12345318 0.051794625 0.12694271 0 0 0 
-0.097246822 -0.054472042 0.18304271 0 0 0 
-0.12681349 0.14229462 -0.18082396 0 0 0 
-0.13418016 -0.14790538 -0.30902396 0 0 0 
0.046753178 0.25382796 -0.34612396 0 0 0 
0.045619845 0.10352796 -0.022690626 0 0 0 
0.12088651 -0.0027053755 -0.25529063 0 0 0 
-0.089313489 0.13279462 0.14010937 0 0 0 
-0.095646822 0.16372796 -0.27042396 0 0 0 
0.040153178 0.15999462 -0.25785729 0 0 0 
0.014619845 0.10692796 0.017642707 0 0 0 
-0.13854682 0.13226129 -0.17662396 0 0 0 
-0.12691349 -0.072905375 0.028442707 0 0 0 
-0.14488016 0.13002796 -0.28245729 0 0 0 
-0.11648016 0.11702796 0.15280937 0 0 0 
0.12148651 -0.090905375 -0.31012396 0 0 0 
0.20415318 0.087761291 -0.37935729 0 0 0 
-0.12808016 -0.040638709 0.016009374 0 0 0 
-0.12838016 -0.072072042 -0.08402396 0 0 0 
-0.14984682 -0.035572042 -0.14592396 0 0 0 
0.097519845 -0.095572042 -0.25652396 0 0 0 
-0.050980155 0.23152796 -0.31885729 0 0 0 
0.051519845 0.065961291 -0.0038239597 0 0 0 
0.061619845 0.038661291 -0.19569063 0 0 0 
-0.17074682 0.082527958 -0.18872396 0 0 0 
-0.13251349 -0.099105375 -0.01822396 0 0 0 
0.12561984 0.14069462 -0.31005729 0 0 0 
0.041986511 0.14626129 0.15660937 0 0 0 
0.066419845 -0.070238709 0.01257604 0 0 0 
-0.12934682 0.21776129 -0.32755729 0 0 0 
-0.0092801555 0.11199462 0.069642707 0 0 0 
-0.042680155 -0.032305375 0.02717604 0 0 0 
0.061886511 0.00079462455 0.056909374 0 0 0 
0.079519845 0.16649462 -0.31002396 0 0 0 
0.15011984 0.17906129 -0.38029063 0 0 0 
0.12328651 0.0067279579 -0.27639063 0 0 0 
-0.049946822 0.26676129 -0.36552396 0 0 0 
-0.055146822 -0.12773871 0.024842707 0 0 0 
-0.11968016 0.22022796 -0.32509063 0 0 0 
-0.27184682 0.14902796 -0.39699063 0 0 0 
-0.078846822 -0.14927204 -0.18659063 0 0 0 
-0.049280155 -0.10000538 0.02337604 0 0 0 
-0.083613489 0.13829462 0.090509374 0 0 0 
-0.14594682 -0.20160538 -0.39862396 0 0 0 
-0.16631349 -0.029238709 -0.23769063 0 0 0 
0.075553178 0.080227958 0.14894271 0 0 0 
0.094086511 0.19829462 -0.31285729 0 0 0 
-0.15081349 0.055827958 0.14167604 0 0 0 
0.053153178 -0.15743871 -0.26742396 0 0 0 
0.061653178 0.21739462 -0.31475729 0 0 0 
0.14888651 0.15159462 -0.35592396 0 0 0 
0.13551984 0.17422796 -0.34315729 0 0 0 
-0.10184682 0.22909462 -0.32962396 0 0 0 
0.072553178 -0.065872042 0.009742707 0 0 0 
0.019286511 -0.061838709 -0.20492396 0 0 0 
-0.15441349 -0.078305375 -0.19122396 0 0 0 
0.086486511 0.11932796 -0.28059063 0 0 0 
-0.10391349 0.18446129 -0.31015729 0 0 0 
-0.064480155 0.16112796 -0.28239063 0 0 0 
-0.10218016 0.12716129 0.11267604 0 0 0 
-0.099813489 0.12799462 0.15150937 0 0 0 
0.18121984 0.080494625 -0.34082396 0 0 0 
0.036053178 0.20492796 -0.31029063 0 0 0 
0.21298651 -0.083205375 -0.38822396 0 0 0 
-0.053613489 -0.038272042 0.080009374 0 0 0 
-0.035380155 0.041394625 0.13617604 0 0 0 
0.033253178 0.065161291 -0.073990626 0 0 0 
-0.23151349 -0.029772042 -0.37619063 0 0 0 
-0.14878016 0.044627958 9.373645e-06 0 0 0 
-0.034013489 0.17466129 0.19154271 0 0 0 
-0.095146822 0.14626129 0.21430937 0 0 0 
0.0023531779 0.10139462 -0.13055729 0 0 0 
-0.14621349 0.045727958 0.044242707 0 0 0 
-0.10494682 -0.089138709 -0.10065729 0 0 0 
-0.084313489 -0.15677204 -0.20332396 0 0 0 
-0.014046822 0.10686129 0.037642707 0 0 0 
0.11655318 -0.076238709 -0.28192396 0 0 0 
0.0051865112 0.16349462 -0.066157293 0 0 0 
-0.029080155 0.15822796 -0.06162396 0 0 0 
0.090853178 0.11759462 -0.26829063 0 0 0 
-0.098480155 -0.096505375 -0.28479063 0 0 0 
-0.16794682 0.044794625 -0.12469063 0 0 0 
-0.11498016 0.11899462 0.18290937 0 0 0 
-0.052013489 0.17729462 -0.21802396 0 0 0 
0.026586511 -0.17533871 -0.26685729 0 0 0 
-0.15118016 0.049094625 0.043342707 0 0 0 
-0.079113489 0.060261291 0.38297604 0 0 0 
-0.056513489 0.13692796 0.13187604 0 0 0 
-0.20111349 -0.084638709 -0.39665729 0 0 0 
-0.23704682 0.22082796 -0.39422396 0 0 0 
-0.15958016 -0.037605375 -0.14909063 0 0 0 
0.12081984 0.029694625 -0.25779063 0 0 0 
-0.083646822 0.28016129 -0.39409063 0 0 0 
-0.022213489 0.15446129 0.13244271 0 0 0 
-0.23401349 0.17432796 -0.35995729 0 0 0 
0.044953178 -0.0027053755 -0.20769063 0 0 0 
-0.0090468221 0.14162796 -0.11249063 0 0 0 
-0.15798016 0.024427958 0.086942707 0 0 0 
-0.23588016 0.16736129 -0.38135729 0 0 0 
-0.15934682 0.21792796 -0.35802396 0 0 0 
-0.037646822 -0.15287204 -0.29269063 0 0 0 
-0.22554682 -0.0044720421 -0.33875729 0 0 0 
0.049353178 0.14572796 -0.28609063 0 0 0 
0.19195318 0.050927958 -0.33102396 0 0 0 
0.25015318 0.0084946245 -0.36985729 0 0 0 
-0.098980155 -0.11180538 0.08667604 0 0 0 
0.10748651 0.22182796 -0.33759063 0 0 0 
-0.11148016 -0.11423871 -0.015657293 0 0 0 
-0.10408016 0.13722796 0.015909374 0 0 0 
-0.16728016 0.033061291 -0.27765729 0 0 0 
-0.015980155 -0.058572042 0.20280937 0 0 0 
0.044686511 0.0025946245 0.087942707 0 0 0 
-0.056146822 -0.17947204 -0.21989063 0 0 0 
0.015153178 0.14122796 -0.085390626 0 0 0 
0.011819845 0.15142796 -0.15119063 0 0 0 
0.20368651 0.026894625 -0.33089063 0 0 0 
0.14061984 0.10592796 -0.31009063 0 0 0 
-0.20834682 -0.047372042 -0.33939063 0 0 0 
0.22921984 -0.055138709 -0.31062396 0 0 0 
0.23948651 0.032194625 -0.36535729 0 0 0 
-0.15848016 0.11136129 -0.05682396 0 0 0 
0.057853178 0.050794625 -0.18589063 0 0 0 
0.15088651 0.15399462 -0.35855729 0 0 0 
-0.023613489 0.024261291 -0.10732396 0 0 0 
0.081119845 0.12626129 -0.22875729 0 0 0 
0.051419845 0.074461291 0.21967604 0 0 0 
-0.075846822 0.24742796 -0.34062396 0 0 0 
0.12385318 -0.020505375 -0.27065729 0 0 0 
0.036586511 0.13696129 0.20424271 0 0 0 
-0.0088134888 0.15019462 0.11987604 0 0 0 
0.023719845 -0.12430538 -0.23569063 0 0 0 
0.12061984 0.061461291 0.13767604 0 0 0 
-0.060546822 -0.16447204 -0.25985729 0 0 0 
0.091686511 0.098794625 -0.22139063 0 0 0 
-0.072146822 0.010494625 0.14614271 0 0 0 
-0.077280155 -0.12223871 -0.066890626 0 0 0 
0.0045865112 -0.023905375 0.20550937 0 0 0 
-0.046113489 0.14112796 0.03117604 0 0 0 
-0.0043134888 -0.22340538 -0.25899063 0 0 0 
-0.045480155 -0.14497204 -0.20475729 0 0 0 
-0.14778016 0.023127958 0.20597604 0 0 0 
-0.10574682 0.16009462 -0.24925729 0 0 0 
0.19298651 0.00082795788 -0.31052396 0 0 0 
0.010819845 -0.21060538 -0.38732396 0 0 0 
-0.082046822 -0.013305375 0.35227604 0 0 0 
0.15648651 0.16519462 -0.37882396 0 0 0 
-0.10188016 0.16196129 -0.22432396 0 0 0 
-0.028446822 -0.058438709 0.19167604 0 0 0 
-0.26224682 0.094094625 -0.37925729 0 0 0 
0.037486511 0.049494625 -0.019890626 0 0 0 
-0.14444682 -0.13707204 -0.31219063 0 0 0 
-0.16301349 0.083927958 -0.078757293 0 0 0 
-0.14248016 -0.024305375 0.08877604 0 0 0 
-0.076713489 0.17709462 -0.13089063 0 0 0 
-0.096380155 0.016261291 0.36314271 0 0 0 
0.038453178 0.25679462 -0.34785729 0 0 0 
0.055119845 0.073261291 0.0012093736 0 0 0 
0.033653178 -0.049705375 -0.22002396 0 0 0 
-0.0072134888 0.16166129 0.28137604 0 0 0 
0.032953178 0.20206129 -0.31009063 0 0 0 
0.087353178 0.10996129 0.17397604 0 0 0 
-0.15324682 0.066794625 0.08057604 0 0 0 
-0.10978016 0.16312796 -0.12959063 0 0 0 
-0.015046822 -0.041572042 -0.05002396 0 0 0 
-0.15924682 0.10726129 -0.05462396 0 0 0 
0.12201984 -0.12943871 -0.34475729 0 0 0 
-0.029413489 0.17436129 0.24077604 0 0 0 
0.0063865112 -0.025772042 0.21460937 0 0 0 
-0.031946822 0.17579462 0.21727604 0 0 0 
0.043986511 0.060827958 0.04797604 0 0 0 
-0.16724682 0.064361291 0.21654271 0 0 0 
-0.16628016 0.068894625 0.024142707 0 0 0 
0.065553178 -0.045038709 0.057942707 0 0 0 
0.15225318 0.12199462 -0.32355729 0 0 0 
0.21931984 0.025827958 -0.34075729 0 0 0 
-0.0090468221 0.081627958 -0.091190626 0 0 0 
-0.15731349 -0.065205375 -0.30852396 0 0 0 
-0.066280155 0.14336129 0.023142707 0 0 0 
-0.20178016 0.16719462 -0.32662396 0 0 0 
-0.032613489 -0.10007204 -0.17222396 0 0 0 
-0.039646822 0.053027958 0.34754271 0 0 0 
0.093919845 0.069061291 0.12637604 0 0 0 
-0.041080155 0.043694625 0.31920937 0 0 0 
0.11468651 0.12619462 0.21150937 0 0 0 
0.027453178 0.15896129 -0.29329063 0 0 0 
0.0073198445 0.17839462 -0.21269063 0 0 0 
0.11105318 0.12542796 -0.31005729 0 0 0 
-0.15701349 0.085361291 0.15050937 0 0 0 
-0.033813489 0.17456129 0.23534271 0 0 0 
-0.11368016 -0.076838709 -0.30455729 0 0 0 
-0.14741349 0.078061291 0.04837604 0 0 0 
-0.25874682 0.12192796 -0.39882396 0 0 0 
0.11071984 -0.15780538 -0.39052396 0 0 0 
0.015319845 0.16569462 -0.18169063 0 0 0 
0.012519845 0.12039462 -0.0030239597 0 0 0 
0.17005318 0.18246129 -0.39639063 0 0 0 
0.076519845 0.083294625 0.11717604 0 0 0 
-0.045246822 0.16986129 0.23394271 0 0 0 
0.039819845 0.059627958 -0.071390626 0 0 0 
0.12731984 0.20896129 -0.38799063 0 0 0 
0.074119845 -0.039338709 -0.22379063 0 0 0 
-0.12218016 -0.092505375 0.047042707 0 0 0 
0.075786511 -0.033438709 0.032209374 0 0 0 
0.048019845 0.27446129 -0.38425729 0 0 0 
-0.12121349 0.084027958 0.31150937 0 0 0 
-0.15134682 0.035094625 -0.010757293 0 0 0 
0.046319845 0.15609462 -0.21265729 0 0 0 
-0.18088016 -0.12577204 -0.39332396 0 0 0 
-0.18881349 -0.10690538 -0.38245729 0 0 0 
-0.18344682 0.14566129 -0.30945729 0 0 0 
-0.24044682 0.15882796 -0.35652396 0 0 0 
-0.058780155 -0.026338709 0.36090937 0 0 0 
-0.022480155 0.30992796 -0.39539063 0 0 0 
-0.15978016 0.079561291 -0.11919063 0 0 0 
-0.18004682 0.20316129 -0.35302396 0 0 0 
0.18778651 0.17099462 -0.39642396 0 0 0 
0.097953178 0.11652796 0.19340937 0 0 0 
0.22421984 0.091294625 -0.39525729 0 0 0 
0.091653178 0.20126129 -0.31385729 0 0 0 
0.061619845 0.13176129 0.17070937 0 0 0 
0.017919845 0.10456129 0.01197604 0 0 0 
-0.022413489 -0.089138709 -0.17165729 0 0 0 
-0.081080155 0.054894625 0.40090937 0 0 0 
0.011819845 0.13799462 -0.027090626 0 0 0 
-0.12121349 0.11399462 0.25490937 0 0 0 
0.0050198445 -0.21347204 -0.37932396 0 0 0 
-0.14761349 -0.11117204 -0.31262396 0 0 0 
-0.12324682 0.060861291 0.32410937 0 0 0 
-0.016646822 0.16022796 -0.064990626 0 0 0 
0.067653178 0.29499462 -0.39845729 0 0 0 
-0.15891349 0.11349462 -0.068790626 0 0 0 
0.069986511 0.099361291 0.10110937 0 0 0 
-0.040746822 -0.17113871 -0.32442396 0 0 0 
-0.012213489 0.080527958 0.25787604 0 0 0 
0.29808651 -0.033605375 -0.39492396 0 0 0 
-0.10934682 0.052761291 0.33260937 0 0 0 
-0.059346822 0.018794625 0.16497604 0 0 0 
-0.093246822 0.26512796 -0.38049063 0 0 0 
-0.14301349 0.10222796 0.11734271 0 0 0 
-0.076413489 0.18029462 -0.16385729 0 0 0 
0.12271984 0.075127958 -0.30972396 0 0 0 
-0.038146822 -0.13367204 -0.20972396 0 0 0 
0.25655318 -0.058872042 -0.35592396 0 0 0 
-0.25124682 0.13992796 -0.36835729 0 0 0 
-0.17808016 0.12062796 -0.30902396 0 0 0 
-0.16421349 0.099861291 -0.14012396 0 0 0 
-0.14194682 -0.041172042 -0.02642396 0 0 0 
-0.048180155 -0.036305375 0.38344271 0 0 0 
-0.16324682 0.047894625 0.26960937 0 0 0 
-0.061813489 0.063094625 0.36804271 0 0 0 
0.13855318 0.14372796 -0.32055729 0 0 0 
0.069119845 -0.15457204 -0.27662396 0 0 0 
-0.085846822 -0.25243871 -0.37302396 0 0 0 
-0.017913489 0.14832796 -0.032457293 0 0 0 
0.18865318 0.047361291 -0.32555729 0 0 0 
-0.12921349 0.12962796 0.073709374 0 0 0 
-0.064080155 0.14649462 0.070209374 0 0 0 
0.0014865112 0.16572796 -0.28835729 0 0 0 
-0.043446822 0.024727958 0.32140937 0 0 0 
-0.14518016 0.093861291 0.23627604 0 0 0 
0.075719845 -0.17080538 -0.36002396 0 0 0 
0.047119845 0.019527958 0.079809374 0 0 0 
0.031453178 0.14552796 -0.17572396 0 0 0 
-0.14184682 -0.096938709 -0.17229063 0 0 0 
-0.024113489 0.11992796 0.0087760403 0 0 0 
-0.10571349 -0.11907204 -0.16772396 0 0 0 
